# .PCD v0.7 - Point Cloud Data file format
VERSION 0.7
FIELDS x y z
SIZE 4 4 4
TYPE F F F
COUNT 1 1 1
WIDTH 552
HEIGHT 1
VIEWPOINT 0 0 0 1 0 0 0
POINTS 552
DATA ascii
9.3 0.5 0.3
9.1 0.5 0.3
8.9 0.5 0.3
8.7 0.5 0.3
8.5 0.5 0.3
8.3 0.5 0.3
8.1 0.3 0.3
7.9 0.1 0.3
7.7 -0.1 0.3
7.5 -0.3 0.3
7.3 -0.5 0.3
7.1 -0.7 0.3
6.9 -0.9 0.3
6.7 -1.1 0.3
6.5 -1.1 0.3
6.3 -1.3 0.5
6.1 -1.5 0.5
5.9 -1.3 0.7
5.7 -1.3 0.7
5.5 -1.1 0.9
5.3 -1.3 0.9
5.1 -1.1 1.1
4.9 -1.1 1.1
4.7 -0.9 1.3
4.5 -0.9 1.3
4.3 -0.7 1.5
4.1 -0.9 1.5
3.9 -0.7 1.7
3.7 -0.7 1.7
3.5 -0.5 1.9
3.3 -0.7 1.9
3.1 -0.5 2.1
2.9 -0.5 2.1
2.7 -0.3 2.3
2.7 -0.1 2.3
2.5 0.1 2.5
2.5 0.3 2.5
2.5 0.5 2.5
2.7 0.7 2.5
2.7 0.9 2.5
2.9 1.1 2.5
3.1 0.9 2.7
3.3 0.9 2.7
3.5 0.7 2.9
3.7 0.7 2.9
3.9 0.5 3.1
4.1 0.7 3.1
4.3 0.5 3.3
4.5 0.5 3.3
4.7 0.3 3.5
4.9 0.5 3.5
5.1 0.3 3.7
5.3 0.3 3.7
5.5 0.1 3.9
5.7 0.3 3.9
5.9 0.1 4.1
5.9 -0.1 4.1
6.1 -0.3 4.3
6.3 -0.3 4.3
6.5 -0.5 4.5
6.7 -0.5 4.5
6.9 -0.7 4.7
7.1 -0.9 4.7
7.3 -1.1 4.7
7.5 -1.3 4.7
7.7 -1.5 4.7
7.9 -1.7 4.7
7.9 -1.9 4.7
7.7 -2.1 4.9
7.5 -2.3 4.9
7.3 -2.3 4.9
7.1 -2.1 5.1
6.9 -2.1 5.1
6.7 -2.3 5.1
6.5 -2.1 5.3
6.3 -2.1 5.3
6.1 -2.3 5.3
5.9 -2.1 5.5
5.7 -2.3 5.5
5.5 -2.3 5.5
5.3 -2.1 5.7
5.1 -2.1 5.7
4.9 -2.1 5.7
4.7 -1.9 5.9
4.5 -1.9 5.9
4.3 -1.7 6.1
4.1 -1.5 6.1
3.9 -1.3 6.3
3.7 -1.1 6.3
3.5 -0.9 6.5
3.3 -0.7 6.5
3.1 -0.5 6.7
2.9 -0.3 6.7
2.7 -0.1 6.9
2.7 0.1 6.9
2.7 0.3 6.9
2.7 0.5 6.9
2.9 0.7 7.1
3.1 0.7 7.1
3.3 0.9 7.1
3.5 0.7 7.3
3.7 0.5 7.3
3.9 0.3 7.5
4.1 0.3 7.5
4.3 0.1 7.7
4.5 0.1 7.7
4.7 0.1 7.7
4.9 -0.1 7.9
5.1 -0.1 7.9
5.3 -0.3 8.1
5.5 -0.3 8.1
5.7 -0.3 8.1
5.9 -0.5 8.3
6.1 -0.5 8.3
6.3 -0.3 8.3
6.5 -0.5 8.5
6.7 -0.5 8.5
6.9 -0.3 8.5
7.1 -0.5 8.7
7.3 -0.7 8.7
7.5 -0.9 8.9
7.7 -0.9 8.9
7.9 -0.7 8.9
8.1 -0.9 9.1
8.3 -0.7 9.1
8.3 -0.5 9.1
8.5 -0.3 9.3
8.5 -0.1 9.3
8.5 0.1 9.3
8.5 0.3 9.3
8.5 0.5 9.3
8.5 0.7 9.3
8.3 0.9 9.3
8.1 1.1 9.3
7.9 1.1 9.3
7.7 1.3 9.3
7.5 1.5 9.3
7.3 1.7 9.3
7.1 1.9 9.3
6.9 2.1 9.3
6.7 2.3 9.3
6.5 2.5 9.3
6.3 2.7 9.3
6.1 2.9 9.3
5.9 3.1 9.3
5.9 3.3 9.3
5.9 3.5 9.3
5.9 3.7 9.3
5.9 3.9 9.3
5.9 4.1 9.3
5.9 4.3 9.3
5.9 4.5 9.3
5.9 4.7 9.3
5.9 4.9 9.3
5.9 5.1 9.3
5.9 5.3 9.3
5.9 5.5 9.3
5.9 5.7 9.3
6.1 5.9 9.3
6.3 6.1 9.3
6.5 6.3 9.3
6.7 6.1 9.5
6.9 6.1 9.5
7.1 5.9 9.7
7.3 5.9 9.7
7.5 5.7 9.9
7.7 5.7 9.9
7.9 5.5 9.9
8.1 5.3 10.1
8.3 5.3 10.1
8.5 5.1 10.3
8.7 5.1 10.3
8.9 4.9 10.3
9.1 4.7 10.5
9.3 4.7 10.5
9.5 4.5 10.7
9.7 4.7 10.7
9.9 4.5 10.9
10.1 4.5 10.9
10.3 4.3 11.1
10.5 4.3 11.1
10.7 4.1 11.1
10.9 3.9 11.3
10.9 3.7 11.3
10.9 3.5 11.3
11.1 3.3 11.5
11.1 3.1 11.5
10.9 2.9 11.5
10.7 2.7 11.5
10.5 2.9 11.7
10.3 2.7 11.7
10.1 2.9 11.9
9.9 2.9 11.9
9.7 3.1 12.1
9.5 3.1 12.1
9.3 2.9 12.1
9.1 3.1 12.3
8.9 3.1 12.3
8.7 3.3 12.3
8.5 3.5 12.5
8.3 3.3 12.5
8.1 3.5 12.7
7.9 3.5 12.7
7.7 3.7 12.9
7.5 3.7 12.9
7.3 3.9 12.9
7.1 4.1 13.1
6.9 4.1 13.1
6.7 4.3 13.3
6.5 4.3 13.3
6.3 4.3 13.3
6.1 4.3 13.3
5.9 4.5 13.5
5.7 4.3 13.5
5.5 4.1 13.5
5.3 3.9 13.7
5.3 3.7 13.7
5.3 3.5 13.7
5.3 3.3 13.7
5.3 3.1 13.7
5.3 2.9 13.7
5.3 2.7 13.7
5.5 2.5 13.7
5.7 2.3 13.7
5.7 2.1 13.7
5.7 1.9 13.7
5.7 1.7 13.7
5.5 1.5 13.7
5.3 1.3 13.7
5.1 1.1 13.7
5.1 0.9 13.7
5.1 0.7 13.7
4.9 0.5 13.7
4.7 0.3 13.7
4.5 0.1 13.7
4.3 -0.1 13.7
4.1 -0.3 13.7
3.9 -0.5 13.7
3.7 -0.7 13.7
3.5 -0.7 13.7
3.3 -0.7 13.7
3.1 -0.7 13.7
2.9 -0.5 13.7
2.7 -0.3 13.7
2.5 -0.1 13.7
2.3 0.1 13.7
2.1 0.3 13.7
1.9 0.3 13.7
1.7 0.5 13.7
1.5 0.5 13.7
1.3 0.7 13.7
1.1 0.7 13.7
0.9 0.9 13.7
0.7 1.1 13.7
0.5 1.1 13.7
0.3 1.1 13.7
0.1 1.3 13.7
-0.1 1.3 13.7
-0.3 1.3 13.7
-0.5 1.3 13.7
-0.7 1.5 13.7
-0.9 1.5 13.7
-1.1 1.5 13.7
-1.3 1.7 13.7
-1.5 1.7 13.7
-1.7 1.9 13.7
-1.9 1.9 13.7
-2.1 2.1 13.7
-2.3 2.1 13.7
-2.5 2.3 13.7
-2.7 2.5 13.7
-2.9 2.5 13.7
-3.1 2.7 13.7
-3.3 2.9 13.7
-3.5 3.1 13.7
-3.7 3.1 13.7
-3.9 3.3 13.7
-4.1 3.5 13.7
-4.3 3.7 13.7
-4.5 3.9 13.7
-4.7 4.1 13.7
-4.9 4.3 13.7
-5.1 4.3 13.7
-5.3 4.3 13.7
-5.5 4.5 13.7
-5.7 4.5 13.7
-5.9 4.7 13.7
-6.1 4.9 13.7
-6.3 5.1 13.7
-6.5 5.3 13.7
-6.7 5.3 13.7
-6.9 5.3 13.7
-7.1 5.3 13.7
-7.3 5.3 13.7
-7.5 5.3 13.7
-7.7 5.3 13.7
-7.9 5.1 13.7
-8.1 4.9 13.7
-8.3 4.7 13.7
-8.3 4.5 13.7
-8.3 4.3 13.7
-8.3 4.1 13.7
-8.3 3.9 13.7
-8.3 3.7 13.7
-8.3 3.5 13.7
-8.1 3.3 13.7
-7.9 3.1 13.7
-7.7 2.9 13.7
-7.5 2.7 13.7
-7.3 2.5 13.7
-7.1 2.3 13.7
-7.1 2.1 13.7
-7.1 1.9 13.7
-7.1 1.7 13.7
-7.1 1.5 13.7
-7.1 1.3 13.7
-7.1 1.1 13.7
-7.1 0.9 13.7
-6.9 0.7 13.7
-6.7 0.5 13.7
-6.5 0.3 13.7
-6.3 0.1 13.7
-6.1 -0.1 13.7
-6.1 -0.3 13.7
-6.1 -0.5 13.7
-6.1 -0.7 13.7
-6.1 -0.9 13.7
-6.1 -1.1 13.7
-6.3 -1.3 13.5
-6.3 -1.5 13.5
-6.5 -1.7 13.5
-6.7 -1.9 13.5
-6.9 -1.7 13.3
-7.1 -1.7 13.3
-7.3 -1.5 13.3
-7.5 -1.3 13.1
-7.7 -1.3 13.1
-7.9 -1.1 12.9
-8.1 -1.1 12.9
-8.3 -1.1 12.9
-8.5 -1.1 12.9
-8.7 -0.9 12.7
-8.9 -0.9 12.7
-9.1 -0.7 12.5
-9.3 -0.7 12.5
-9.5 -0.5 12.3
-9.7 -0.5 12.3
-9.9 -0.3 12.3
-10.1 -0.1 12.1
-10.3 -0.1 12.1
-10.5 0.1 11.9
-10.7 -0.1 11.9
-10.9 0.1 11.7
-11.1 -0.1 11.7
-11.3 -0.3 11.7
-11.5 -0.1 11.5
-11.7 -0.3 11.5
-11.9 -0.5 11.5
-11.9 -0.7 11.5
-11.7 -0.9 11.3
-11.7 -1.1 11.3
-11.5 -1.3 11.1
-11.3 -1.5 11.1
-11.1 -1.7 11.1
-10.9 -1.9 10.9
-10.7 -1.7 10.9
-10.5 -1.9 10.7
-10.3 -1.9 10.7
-10.1 -2.1 10.5
-9.9 -2.1 10.5
-9.7 -2.3 10.3
-9.5 -2.3 10.3
-9.3 -2.5 10.3
-9.1 -2.7 10.1
-8.9 -2.7 10.1
-8.7 -2.9 9.9
-8.5 -2.9 9.9
-8.3 -2.9 9.9
-8.1 -2.9 9.9
-7.9 -3.1 9.7
-7.7 -3.1 9.7
-7.5 -3.3 9.5
-7.3 -3.1 9.5
-7.1 -2.9 9.5
-6.9 -2.7 9.3
-6.7 -2.5 9.3
-6.7 -2.3 9.3
-6.7 -2.1 9.3
-6.7 -1.9 9.3
-6.7 -1.7 9.3
-6.7 -1.5 9.3
-6.7 -1.3 9.3
-6.7 -1.1 9.3
-6.7 -0.9 9.3
-6.7 -0.7 9.3
-6.7 -0.5 9.3
-6.7 -0.3 9.3
-6.9 -0.1 9.3
-7.1 0.1 9.3
-7.3 0.3 9.3
-7.5 0.5 9.3
-7.7 0.7 9.3
-7.9 0.9 9.3
-8.1 1.1 9.3
-8.3 1.3 9.3
-8.5 1.5 9.3
-8.7 1.7 9.3
-8.9 1.9 9.3
-9.1 2.1 9.3
-9.3 2.3 9.3
-9.3 2.5 9.3
-9.3 2.7 9.3
-9.3 2.9 9.3
-9.3 3.1 9.3
-9.1 3.3 9.1
-8.9 3.5 9.1
-8.7 3.3 8.9
-8.5 3.3 8.9
-8.3 3.5 8.9
-8.1 3.7 8.9
-7.9 3.5 8.7
-7.7 3.5 8.7
-7.5 3.3 8.5
-7.3 3.3 8.5
-7.1 3.3 8.5
-6.9 3.1 8.3
-6.7 3.1 8.3
-6.5 2.9 8.1
-6.3 2.7 8.1
-6.1 2.5 7.9
-5.9 2.5 7.9
-5.7 2.7 7.9
-5.5 2.5 7.7
-5.3 2.5 7.7
-5.1 2.5 7.7
-4.9 2.3 7.5
-4.7 2.3 7.5
-4.5 2.1 7.3
-4.3 2.1 7.3
-4.1 2.1 7.3
-3.9 1.9 7.1
-3.7 2.1 7.1
-3.5 2.3 6.9
-3.5 2.5 6.9
-3.5 2.7 6.9
-3.7 2.9 6.7
-3.9 3.1 6.7
-4.1 3.3 6.5
-4.3 3.5 6.5
-4.5 3.7 6.3
-4.7 3.5 6.3
-4.9 3.5 6.3
-5.1 3.7 6.1
-5.3 3.7 6.1
-5.5 3.7 6.1
-5.7 3.9 5.9
-5.9 3.9 5.9
-6.1 4.1 5.7
-6.3 4.3 5.7
-6.5 4.5 5.5
-6.7 4.3 5.5
-6.9 4.3 5.5
-7.1 4.5 5.3
-7.3 4.7 5.3
-7.5 4.9 5.1
-7.7 4.7 5.1
-7.9 4.7 5.1
-8.1 4.9 4.9
-8.3 4.7 4.9
-8.5 4.5 4.7
-8.5 4.3 4.7
-8.3 4.1 4.7
-8.1 3.9 4.7
-7.9 3.7 4.7
-7.7 3.5 4.7
-7.5 3.5 4.7
-7.3 3.3 4.5
-7.3 3.1 4.5
-7.1 2.9 4.3
-6.9 2.9 4.3
-6.7 2.7 4.1
-6.7 2.5 4.1
-6.5 2.3 3.9
-6.3 2.5 3.9
-6.1 2.3 3.7
-5.9 2.3 3.7
-5.7 2.1 3.5
-5.5 2.3 3.5
-5.3 2.1 3.3
-5.1 2.1 3.3
-4.9 1.9 3.1
-4.7 2.1 3.1
-4.5 1.9 2.9
-4.3 1.9 2.9
-4.1 1.7 2.7
-3.9 1.9 2.7
-3.7 2.1 2.7
-3.5 1.9 2.5
-3.3 2.1 2.5
-3.1 2.3 2.5
-3.3 2.5 2.5
-3.5 2.7 2.3
-3.5 2.9 2.3
-3.7 3.1 2.1
-3.9 3.1 2.1
-4.1 3.3 1.9
-4.3 3.1 1.9
-4.5 3.3 1.7
-4.7 3.3 1.7
-4.9 3.5 1.5
-5.1 3.3 1.5
-5.3 3.5 1.3
-5.5 3.5 1.3
-5.7 3.7 1.1
-5.9 3.7 1.1
-6.1 3.9 0.9
-6.1 4.1 0.9
-6.3 4.3 0.7
-6.5 4.1 0.7
-6.7 4.3 0.5
-6.9 4.3 0.5
-7.1 4.5 0.3
-7.3 4.3 0.3
-7.5 4.1 0.3
-7.5 3.9 0.3
-7.5 3.7 0.3
-7.5 3.5 0.3
-7.5 3.3 0.3
-7.5 3.1 0.3
-7.5 2.9 0.3
-7.5 2.7 0.3
-7.5 2.5 0.3
-7.5 2.3 0.3
-7.5 2.1 0.3
-7.5 1.9 0.3
-7.5 1.7 0.3
-7.5 1.5 0.3
-7.3 1.3 0.3
-7.3 1.1 0.3
-7.1 0.9 0.3
-7.1 0.7 0.3
-7.1 0.5 0.3
-6.9 0.3 0.3
-6.9 0.1 0.3
-6.7 -0.1 0.3
-6.7 -0.3 0.3
-6.5 -0.5 0.3
-6.5 -0.7 0.3
-6.3 -0.9 0.3
-6.3 -1.1 0.3
-6.1 -1.3 0.3
-6.1 -1.5 0.3
